ply
format ascii 1.0
element vertex 715
property float x
property float y
property float z
property uchar red
property uchar green
property uchar blue
end_header
4.796601525568642 0.1831032144488894 39.833511434923174 152 153 145
-15.651124794362035 -0.7918078564915124 74.87044760768345 101 102 96
0.4441425184378535 6.750924071490451 5.452257738693633 132 132 134
19.70525089315261 -11.345996912284312 31.739270829001292 193 199 195
-9.308337005079688 9.593824212772255 41.77006195286982 61 58 51
-1.161429528432756 5.429523783337413 7.527847753434477 155 145 135
-0.5583930651507614 6.754991661803948 5.707564782723401 15 6 0
-0.4357904636290263 2.525030100580736 44.241730238024815 145 145 133
2.3773873931619223 4.954784582878577 5.78099616071233 162 148 135
-0.5744312517359201 -2.5768881419679075 56.05128163670255 104 100 89
-32.932159127288166 -9.249515585047643 100.91105051730942 16 10 0
1.2924188519536042 5.127132671177327 8.517991191492943 143 131 115
-10.824570103537578 10.656122753600679 41.38242544127003 106 104 92
-21.447482799607457 -2.9531711772250495 84.22446435858679 164 160 148
-0.08775949740375937 5.906342188697264 8.005023395830854 11 0 0
12.417576265719251 -4.245884424436953 37.13354634301805 207 209 204
-0.3394649981806463 3.930805663875944 10.065988183785684 52 25 4
0.136957134012019 3.1875736548266014 10.269300595663234 220 210 198
2.67656535974801 0.04475978186294933 44.20879255965857 91 92 86
-88.0111641728592 -88.47682480963289 297.9526261275854 165 161 152
-0.21478417983874243 5.981558925803493 7.929630996250214 139 132 124
-12.846696543319753 -5.951375643540152 76.57946029045176 134 128 114
0.3754064949399012 5.654309281702023 8.329014518901298 146 133 124
1.8337389715468806 -0.6198745545124383 49.251214602662195 187 182 178
-2.6625489573046184 4.848672043683979 13.097774973301668 164 156 143
-3.129186064038203 -1.380849466856728 56.31473578642797 125 125 115
9.14632918895446 6.482233774939886 14.376127384790593 64 64 64
-67.23546782071566 -68.04267137187065 248.97013814752034 54 50 39
9.731254716068165 5.993022329609202 14.806982592061232 197 202 206
0.45283344111863594 5.559685389982335 8.544258404735324 132 124 113
-1.233410608290734 3.1936870585454553 42.9152034716726 88 86 74
1.2926981884351454 0.01176772963876622 46.75543875268536 100 98 86
0.6473221562000566 6.156180819953859 6.433063388139467 25 18 12
6.893723140969714 8.92510792989704 10.050406026764856 147 147 147
-2.603325282842128 5.500996837414105 8.101898246889503 178 163 144
16.247092859792808 -11.194350964369576 38.032102315806135 94 90 81
9.703694378116051 -14.781130975938563 50.02681424895049 109 108 103
-12.820540565597003 12.052573275531595 33.00151264012476 78 74 63
-6.804704746365935 5.517624577064639 47.568245978113666 64 62 49
-21.956345626509282 -6.243582386264175 92.7433138461757 87 81 69
9.616773362216168 5.932656704711817 15.067484667646417 84 90 88
-30.724187490920748 -23.863659770093772 97.45403849699039 147 141 127
-10.920920169980938 9.880364792343487 42.78023356905858 113 113 103
-0.972078864032687 -0.5942793420536165 51.92551815527995 100 97 88
20.16544016467248 -8.198206115861321 30.00874118130848 44 36 23
-15.003322130913915 3.6032469225019708 63.875161743023405 54 53 48
-22.856286404199878 4.1691452738831405 52.0215214446241 106 99 83
-67.56078397372606 -69.80399399500291 265.09154924194456 165 161 152
-11.918130971513817 2.325495899256511 61.78582994101689 161 159 147
-13.495420846450275 1.5082831884412917 66.65716035449785 58 59 53
-8.125180574341424 -5.931787195891725 70.4477722882515 167 161 145
2.9103546688758297 4.7581581445612775 6.06610004232327 229 227 214
2.864115021838095 4.53458318502227 6.142106161616954 202 190 178
0.4463045284611475 3.7298848990470743 10.218510864043607 148 131 115
13.097694436063968 -6.884599134955917 40.88869117069199 83 81 69
8.880612562876664 6.822748588113223 13.572911533901127 83 84 78
3.3447762260031135 -1.9349469949806566 47.36559503265986 37 34 25
-1.4395366535358392 5.728591248863837 11.921127966257481 29 21 8
-20.492965463649536 -2.2402892939523475 81.03431464210308 114 107 89
-28.999414262470175 -1.418086914199655 66.21836989598545 20 11 0
-9.916516892498262 11.892884761214512 37.291251426099535 144 142 130
11.101368591846313 -1.7289850511550522 35.253721830118145 178 182 183
-25.344744131523992 0.7166947232207014 71.50097587959549 35 20 0
8.997948533270627 -7.917819105752517 47.34656381162953 122 118 107
-0.8941116420320592 4.697559592536041 11.001472378869867 183 174 165
10.615953140750985 -5.08977730825994 41.495126489077315 80 75 69
0.16262801771812554 3.332267925789091 10.170701087294551 178 163 142
-12.341942803176321 -1.9373118727193235 72.1500698513361 15 9 0
8.363705634632069 7.342034873300747 13.063348704628527 57 57 55
2.4862814926996206 5.100785379378387 6.623923550381679 127 117 105
1.3360247012495237 4.989566099936593 8.40021842405254 88 73 54
2.9540604095494896 4.638745114477314 6.092627792504825 183 167 151
2.7449039146867094 3.7658864376502814 6.488428743953202 153 140 124
15.03386221667152 -2.818854483725361 30.076840934345512 115 112 103
-7.013189811410886 -2.645373072096188 62.61421025007529 76 68 55
0.6899731285834898 0.8130124846462105 45.760323665091484 95 95 85
11.237777308166539 -2.82591930850471 36.52822065914339 24 20 9
-1.8126866405335365 -5.363611951281967 59.38577059778177 54 47 31
8.90555960508372 7.045502451414159 12.931250757103465 190 193 198
-27.367085159087235 -2.5943272588542796 62.41715675734049 158 151 135
0.1527912496430462 2.2195237491546513 43.025667458152945 138 138 126
-0.8941116420320592 4.697559592536041 11.001472378869867 183 174 165
-0.6222583759999165 5.691177954314212 9.250829140131925 179 174 170
3.9311147432713276 -2.302387902399958 48.069989369826736 95 91 82
11.295895268431119 -7.74746471054962 44.33751202283597 131 127 116
14.987669658325876 -0.7692012230885298 25.347466504511374 230 238 241
-5.853417192258752 -18.387217164627085 72.10428989194342 132 125 109
-1.2259583120787125 5.491783242915771 7.525986392725242 19 7 0
12.443265747986032 -12.63191780215194 43.95978531897775 135 127 114
-0.00028814423692434993 3.8434411212492576 9.984377744039119 142 122 97
-0.5411274249532276 3.9171422220997787 10.127001134028635 187 175 159
2.7122916647048347 1.2684652359273052 40.169123453595745 72 72 60
-11.24502794266884 13.825874206256783 27.808050930634266 88 81 73
-12.540703528194625 -15.36648079344423 80.74908407091385 154 150 139
-14.955931928081181 4.9706449782257325 62.027683091703736 127 124 117
10.679797944873396 4.835509993081248 15.57373273352874 192 194 191
10.79521018173843 0.5545330837513067 29.425842925895047 176 181 177
-2.216027971257153 -2.1224649228202703 57.8722345917854 120 118 106
-11.174175407410797 9.624013133644922 44.1262891375312 122 119 110
1.2910897006932645 4.868403389233087 9.167066895878042 139 125 112
0.7995559099032002 5.615284307459336 8.471828134067655 11 0 0
-24.397213479571736 -5.253435336070473 94.89045852397584 122 116 102
-37.69894039861009 -17.9076605028999 111.67474954292925 86 80 66
-10.334083208971586 8.016092219402905 46.09144867209373 84 81 76
0.529503372431773 6.021426449439086 6.583884096446264 151 147 138
9.555341028292627 5.887984832365776 15.447217597137309 153 155 152
-13.896407201353906 -5.563113099593934 75.86589453586124 84 77 61
12.427838836252466 2.164738874942981 21.457175118580572 178 176 163
-8.6721386135203 10.964918434596292 37.27586499305462 54 54 44
2.0108052905593348 5.792447261049757 6.011595056941076 145 132 115
5.419790679449363 0.47435132672702846 38.512311769083276 108 105 98
2.4682216175886036 5.4250399326423056 6.598582682998204 133 126 116
-9.738219910523817 11.75098477927083 35.12613314710029 76 76 64
11.018398219861478 4.61997017415995 16.2899455547073 126 128 125
16.292966938417823 -7.290051529416697 35.9959733637781 105 101 90
-30.342487019729425 -7.562182792616235 98.57284030420116 8 2 0
11.510514712580209 3.6266919080531643 18.81524337479567 172 181 178
1.7698139472291912 4.323388358358472 7.523840685480407 150 141 126
-1.6124370258412766 -9.195431139707079 64.73110446439198 122 118 106
-1.8088382042424902 7.204738441309418 5.866665033469295 185 184 182
2.3563377251746527 5.195992582798934 6.671858961264339 130 117 101
-15.358526519808857 -5.947386523778521 81.65125219697445 88 81 65
13.150902475523138 -13.593195723415917 44.143649159249755 190 191 177
17.074475667485316 -6.48840873950671 32.512454876733685 138 134 123
0.39368977897448854 3.671287057112331 10.237789744944084 213 200 181
-12.424189910667662 -20.33783189783763 86.33244875637072 159 154 148
0.1349059401053292 6.725992425118639 5.788919618971691 92 83 76
-6.738161659799938 13.07616627537 29.09273891076065 43 42 37
-2.5788383486056308 -2.994838267894311 57.51208548693105 172 168 156
-7.136046427294029 6.787977960168857 46.06762576825851 82 79 70
0.43327601190451304 0.7792724045723936 45.446127020938654 149 149 139
-15.455672767359578 10.849290014258123 40.335353280783856 154 150 138
1.4426294569403857 5.221754166254468 7.612997665485035 80 71 62
12.319405501131053 2.3714677493869925 21.07571288845831 208 211 204
-7.643371496941191 14.195146122804754 27.46750490640349 105 105 103
-37.922779398449855 -20.53874793015181 88.64761328539274 85 79 65
-9.346763617021136 -10.968799274949605 83.5177602836331 143 135 122
-24.624338749673292 0.29204512782432224 73.32751268230861 122 110 88
-17.395889631741063 0.5685551047619889 76.09905730834261 54 55 50
-6.090208156946237 15.663011679550742 18.572217527868478 60 62 59
-0.23348396365669458 3.2374035189016883 10.75595537662257 170 158 144
-12.264896140969292 -6.107570952172148 76.20712129063932 149 143 129
-0.5240186127159309 0.9319801752117552 49.30801375446433 102 100 87
0.5963595131720684 3.327093780833398 10.319781364554693 188 171 151
-1.6185539893091985 5.610485779142053 9.242802866446393 140 123 103
-14.594604612065146 11.513615826080343 37.748617792084666 60 58 46
10.717777672093202 0.9199848982805684 27.894226933195785 174 179 175
9.670254817439798 -5.185909568577652 41.65353048885782 191 192 186
2.9540604095494896 4.638745114477314 6.092627792504825 183 167 151
2.8643729145424235 4.492639137759994 6.439668979505596 140 131 122
-12.274931786574257 -21.703879226034353 89.0176779209465 56 48 35
-1.1736448542364406 7.463298782009359 5.720729068414882 76 69 76
-1.2259583120787125 5.491783242915771 7.525986392725242 19 7 0
-2.8837640852293114 -2.4881464015179944 58.19021459265529 109 103 89
22.785887912067015 -21.26804956451479 61.669518385125954 37 25 9
19.18184816399926 -11.379995936796558 32.43751594777335 233 234 226
-9.290646568192727 11.89690726067891 35.83187789069075 62 62 54
-0.18297546037000698 6.652348466994875 5.323533603272748 183 182 180
0.9442989347096329 -15.864318753871022 62.64600401730664 112 106 92
-0.4556179050349818 6.744905848667065 5.885233193798665 143 140 133
17.301329037144892 -19.373183247191726 61.49975774732484 218 217 199
-23.88693208207525 0.2546635482724861 74.81581198402695 77 74 59
0.2700859952940805 3.7397082250383207 10.261299933491847 64 43 22
12.680099921106718 -2.835782468209892 33.80303417844266 29 26 17
1.5115649243485019 5.823757036580733 6.128101396343901 176 169 159
9.44349140358643 -0.4750090059649475 33.41200066383604 103 105 100
-13.30390145802066 7.125733704757937 53.52833385206485 116 112 101
-8.347247253564058 13.937096059377701 29.354042645223736 147 147 139
-81.53103201611141 -100.75691552703954 339.53179932845484 204 200 191
-12.54768768638153 0.6905754458937633 67.34869114798657 167 165 152
1.1669709980152143 5.590238352495327 8.666583615321787 143 136 126
10.17967980359162 -0.5973917743975254 33.00416476455374 127 132 128
-26.487722275919992 -3.888121495522358 82.35109391384525 28 23 4
-29.80630143140052 -25.80910182746303 103.22678387069122 46 40 26
0.5963595131720684 3.327093780833398 10.319781364554693 188 171 151
24.461210105626787 -18.67851112361343 52.63757476969154 177 166 148
-22.66454098275338 1.745701930591637 53.76126192116287 155 149 133
-0.25086391522713175 3.9443446775014133 9.99544236026937 185 172 155
5.23277826566379 -2.6624725234206386 45.903519347782066 134 130 118
17.740305867196877 -3.38155375705034 25.506507604587487 108 105 90
-0.3925877515741824 6.828891313191578 5.999997292300521 201 201 191
9.227755231006832 -3.15711517258938 39.127368255167596 110 110 102
0.5157597057020193 6.655218271083197 5.610718646105601 162 162 160
-7.914266293636342 14.427727646787202 27.350471840403333 134 134 126
-6.823392849134811 -13.808322962209832 79.83238810848499 134 130 119
1.9129423352873702 5.601561327704242 6.227316697291371 122 105 85
-8.7309804646206 0.5364256201885977 60.69685211986158 192 189 180
7.6491440838764495 8.156149775756173 11.638928186081083 86 88 83
-9.647551751853197 14.780796440283154 23.17186812872491 126 125 121
0.3387542575824268 3.893407333237263 10.200508539650622 26 5 0
9.35247632725353 6.358574407362261 14.467990784961268 69 71 70
-9.916516892498262 11.892884761214512 37.291251426099535 144 142 130
7.19496406039307 -0.5088717664774586 37.59104901225869 164 167 160
11.66757249095782 3.524149904173075 18.90541963025991 126 132 130
-1.6338922920911976 7.150209654443021 6.637446035619531 198 197 192
-0.3235809656903324 3.260321221828704 10.846476202163428 85 75 63
18.882906246686193 -7.171241843990318 32.7095533309616 107 103 92
9.980248466888208 0.7792798803195512 29.744284139588203 178 178 170
11.420523421940153 1.9756193722188569 23.825904147915608 133 134 128
-34.229738164397844 -14.358972356223068 75.07027609358327 118 112 96
14.127291979635565 -7.394818697346219 39.23834012377171 121 119 107
-1.5665709010642996 4.8051955782344775 12.175038254139068 25 9 0
19.2038542319671 -9.782225444910111 29.35663856369231 60 58 43
9.765235486958044 5.9187008712980305 14.931600623141236 205 210 213
0.798401347671232 3.291968144455942 10.53713206232381 195 183 171
-27.649343956707945 -3.7043858568286074 83.71452032688921 115 107 84
19.150749012194428 -7.016317740984474 31.978306611254972 121 114 106
-75.15903996916036 -76.33099896160752 265.8366473218276 194 190 181
7.945034338463641 7.87097556048136 12.130211468280015 107 109 106
7.518361485141856 8.323965077772034 11.148460415214076 113 112 117
-14.276753091796484 5.734413441306812 58.5793711649331 130 127 120
-24.225516544612038 2.678118510285541 55.740725449620065 110 100 88
-2.2649726679496323 4.8306871923269386 12.541124300575248 138 121 105
-32.13315805155861 -26.802708334300625 104.00745920789414 153 149 137
-0.5938699269380234 5.546420987675703 9.254369919292262 107 98 89
-32.54045057443585 -10.5882993115823 84.09519143038247 167 161 145
-72.51007243849486 -69.33925929480772 258.9351407115487 97 93 82
-1.1922015419703644 7.431766711695043 6.468219637845215 116 115 120
-25.314752082093232 -2.7486510080200683 86.17402966536041 119 113 97
-0.3381588130757391 6.8299191870529 5.736456673914733 92 83 76
3.066380582917297 4.108704756750029 6.425098433367287 92 88 79
-1.713919024273593 7.4483377178374335 6.202682761576698 123 123 125
-0.7167290137934256 4.7276484328156725 9.832935012108535 133 130 125
10.23032773890891 -4.651509822856044 40.52395415433027 35 31 19
5.729546963525599 -0.010632391521332014 39.554890051687224 109 110 102
-9.320428921198289 9.563919752567813 41.25510270770996 134 131 124
-0.2196752201851233 1.3436090575557096 45.53242393083887 143 141 129
-73.75050847707955 -73.3564551283703 262.1840117849563 63 55 44
-7.83536880066714 12.354833902772159 31.944312569063737 45 44 40
-6.436124054586066 -2.2035301780544163 64.52325720795466 6 2 0
-0.7580114751277437 4.633016417632135 11.079000903852512 160 153 145
10.21289121613441 5.2821716715161795 15.792851559298256 186 191 195
15.221643360168565 -11.144424104633954 39.485830488905606 80 78 66
13.099599411367352 -7.59676346951262 41.504764750191754 122 118 107
-20.040918471081167 7.165840836820829 44.2688612996227 42 33 24
12.022279678625713 -1.505314675994388 31.523751208315705 230 235 229
11.017233245494731 4.474927247175296 16.236560799359058 107 109 106
2.2236204504550487 -1.9695096780359196 50.764650772285925 49 47 35
8.988286511088466 6.726825525996968 13.508824834603471 108 110 109
15.480427004478958 -8.819939305609893 39.14342105277744 75 71 60
-2.019648827776156 4.828808911674131 12.424939344849822 151 132 115
1.9536137998855319 -14.699150496956575 57.759422386090016 99 93 81
0.43439478875465165 3.316968437719901 10.305454008403125 134 119 100
-1.7581410930935366 7.266477778617551 5.768045439919963 187 187 187
-2.3842785796550467 5.289115728185846 12.663609572178158 81 72 57
-15.921559470552648 9.235799791737005 43.03772383465658 74 68 54
-0.5482913529600525 6.908468522520654 5.285734541625789 88 82 82
9.625609360413103 6.025447577075523 14.775890987577238 176 182 182
-0.4132237192153502 3.3034684641192102 10.838698228453286 179 169 159
10.255262295941227 5.524238255382042 15.084531616402298 168 173 176
-0.28166091520964986 6.686699018296494 5.381087564481609 65 56 59
-70.07489655473417 -73.25347006912226 268.9795227154408 12 8 0
11.596949108146157 3.038466871521984 20.2929407715642 132 137 133
0.41121982280893354 3.0038644557831065 10.57115849879726 205 193 177
-1.8385776831184255 1.2138374614381056 44.457964195902825 134 129 110
-0.3560002890706763 5.683880113645365 8.825221724561457 124 116 113
-8.170359108780122 14.108653602387323 28.530657904864157 141 140 135
-10.70334360559279 -2.2116618596760533 70.72067906260196 94 90 79
0.11374709906959207 6.029863577202684 7.881170804038146 133 126 120
-66.2094591710463 -78.13607837451674 266.33886304675553 187 183 174
-15.203957754798589 10.338243925164734 39.80748263155286 156 152 140
-32.39385153145387 -11.971631742511526 81.7844054883456 104 98 82
1.6392230557516607 -5.159313709290568 53.30555142103116 82 76 64
13.950044209722412 0.5918048978424821 23.342152931741715 205 214 213
2.396019300839687 5.438540912828091 5.650283244248926 187 176 158
-2.5540793386036085 5.509616655786532 8.129060476977024 103 88 65
2.864115021838095 4.53458318502227 6.142106161616954 202 190 178
-1.6326562596642356 7.1930349509711675 6.739409700511998 64 53 47
0.5402528816832639 2.1396680428998835 42.58225924536478 75 76 62
-32.932159127288166 -9.249515585047643 100.91105051730942 16 10 0
4.292385223353169 -14.373404800164732 55.60696394370694 130 122 109
-0.1557179403369574 3.170887733830067 10.85557050668418 183 171 157
13.867595069785128 1.363813874732678 21.392581634068282 211 220 219
0.034996849900078675 6.194181499208156 6.518795431901958 13 0 0
10.839459706829388 2.0225289701532296 23.7933712600327 172 172 164
9.16810820249814 6.535613279184177 14.151913154316645 78 78 76
-8.107428948641394 13.979721645716591 28.841836567593987 47 48 42
-7.120896695993977 13.051153993873017 29.87753832517796 132 133 128
-20.31131388606337 -6.070228682340859 88.69150777760844 76 70 56
10.929628064058312 3.638512294358296 19.82014542990542 56 52 43
11.849737560600028 -13.76040834499679 45.50095707214328 189 190 185
-10.899975111841732 14.089116537132613 26.734199729131266 74 70 61
1.6574250261872812 -14.860225715774117 60.88587435940115 143 137 123
-1.662560606989869 7.279896419763577 5.873176063389826 197 200 205
-9.244015368358497 11.50406820314021 36.0316902956298 50 50 40
-30.399313743110547 -8.061598046277753 97.97824274805943 105 102 87
-37.40646996721779 -21.800693881812293 92.91620563296472 155 151 139
0.034996849900078675 6.194181499208156 6.518795431901958 13 0 0
-25.133628809561337 2.8513251310166963 57.24756732036867 67 51 38
14.738583452348495 -5.708783791732567 35.92148065180314 116 116 106
11.48304305325821 0.9210141773300533 26.499061538937557 169 174 170
0.2844440816110413 1.8236911766155655 43.69052105051331 67 67 57
-23.91731413348151 -0.39239658496939356 70.80288911665932 132 124 105
19.395463448841248 -7.148274695296392 32.040526863497725 108 101 91
6.923636757666376 8.908932608252806 10.20708771618562 59 59 59
14.92358769108977 -9.798594244967763 37.38300069424438 61 60 55
-27.29005208174801 -4.168139941859877 84.02911786588203 32 25 7
-0.8499982956479727 6.947733960126924 5.828076562754914 190 198 201
2.1559931900262006 4.494579942357084 7.247897606019399 33 14 7
-0.24932290687774425 3.347797652400321 10.182651473408095 194 184 174
-39.55045095475755 -43.05925065622219 177.24626805420922 190 186 177
11.025669150491487 3.521558306682209 19.883689800877246 165 168 161
-8.107886696074162 7.038678295729919 44.88663535045598 75 71 62
-0.0879739838109543 6.125606776803321 6.571451352511978 11 0 0
1.0742143047243562 5.2245726663233105 7.579675833532201 48 39 34
12.733963327006416 2.1110284827648367 21.18471406659027 201 209 211
-70.69884334233363 -68.69172289120606 255.3605122009993 32 28 19
-13.115766031124423 -18.80541899605189 80.57976819199595 151 147 138
0.46801947667331883 6.397632040238595 6.2257835256976435 214 214 212
-5.849999234121108 5.420203883130584 45.08024416450319 76 74 62
-62.227070711029874 -69.19588923606001 263.4188758012194 189 185 176
-0.5774353041416181 6.799097738845571 5.893841435490532 134 127 119
-1.3514536671483115 2.9237308708859837 44.40696552893281 131 131 121
2.749142117156166 3.880134828756838 6.376518498607672 135 119 104
0.8689213102750774 5.401593940052204 6.068332154547997 187 184 177
-0.24406002619556044 3.7714877953079515 9.947678807950682 82 65 45
-1.3864934031045277 3.112021658390299 43.19714172084022 125 123 111
0.8021614203443141 -9.136558565923059 62.87439169142114 128 124 115
-8.105496571015815 14.234183111403826 28.152588305236776 145 145 137
15.848681146337887 -9.177698148589105 39.934695851564165 128 124 113
-5.850329644120334 -5.334773537151201 66.03164774527151 152 146 130
0.07853394737276082 5.867952965952031 8.164974979315954 181 174 168
-0.08543920486582994 3.536763017147963 10.046584248601807 222 214 201
1.0304146888605314 5.39071645440172 7.564639169640786 68 51 35
-7.628287273340115 14.488230580321721 26.35920870465259 51 50 45
-21.534008319780174 5.070550843387608 48.369937356621605 56 36 25
-1.3864642380046732 7.221257929223172 5.563624775879385 133 129 130
-34.29208523754213 -12.246682596200314 109.52652864285083 107 101 89
-12.784994940325923 12.82208223713634 32.56241255332918 54 50 39
-7.1675517871927985 -1.9947286379407358 65.61642961917703 104 101 92
-27.92841134166844 -19.972155096137804 107.44050135618497 161 153 140
8.031867503754384 7.635228945890499 12.417313882546331 60 62 61
-11.770177930419704 14.020019879808837 28.637196465830698 141 137 126
-12.93064997951673 -5.798479622108332 76.28598734477185 41 35 19
-0.2240489531379234 6.839592573657895 5.8761398513760135 167 162 158
7.58194927577281 -14.157781426986295 50.06853953272349 73 63 51
13.008310121184573 -2.837721521528833 32.70166303601117 33 31 19
-17.31861607145474 -0.8784848805823541 78.34455076517162 85 85 77
2.854996407606785 4.018685001271764 6.326470453761203 201 186 163
-1.216353365413623 4.5706445479842275 12.081444687800598 161 148 139
1.4483409568036703 1.645630603627047 42.14883013433795 123 123 113
-30.542473086137363 -7.616422513409915 78.77696053738863 160 157 142
-31.551724938693784 -8.93929902860292 73.7051575847739 86 80 66
-1.5763751484706552 7.2443743668390175 5.61877256146124 198 198 200
-1.3201713730448645 4.978730561027803 11.4576316738903 39 29 19
-1.709755471271964 7.278870038042666 5.686098222687508 180 180 180
-6.992474713881191 9.179914991294329 38.211145457327525 122 118 107
0.10714809456598398 5.894761544763226 8.175914873302464 86 79 69
4.253410184424248 0.42642098640744397 40.69771691204158 142 143 138
14.466850581126542 -7.776898563768573 40.47704013719293 60 56 45
0.18347891319664716 3.126841460155859 10.507630051125934 190 176 165
-32.92497945681996 -10.634356301089245 85.56845358304564 167 161 145
11.762694793951667 3.8728847730633853 17.631941709073512 85 87 84
-7.180416584704607 13.042528256870071 29.880878813528508 63 64 59
-8.269907695743711 6.7734311481987275 45.3151119017305 116 110 96
-1.7654375139499252 7.165354723621351 6.548678689381715 73 63 53
0.09838944988489152 3.250361847150366 10.19250425252679 215 205 195
1.5440617187435424 -1.508453474013244 48.73964682435326 138 139 134
-16.135343978857392 -6.001766185353378 80.93952018997086 138 132 120
-84.27942874240767 -84.78422512075686 291.8127116542638 30 23 13
-27.218757466206483 -2.224371183869602 63.112580951826175 40 31 14
8.369756898316787 7.573426945350571 12.165589815938525 178 182 183
2.9763529648253924 -8.851611751181922 57.463284415061665 99 95 83
-7.419794916879379 5.899683592396267 47.138842549299056 163 161 148
-1.7739569397901855 7.42263894974666 6.176654907236045 165 165 165
0.08120321750994942 3.8636881740761218 10.044319384995129 201 188 179
5.984662769455836 -2.7502050060755563 45.520567345755666 114 110 99
3.319720931321762 -0.5303103966999736 44.17689410155152 97 98 92
-16.645835474690735 1.5740233084224267 66.78049345302645 13 0 0
2.6785509559698015 1.353226832650114 41.21388094930466 66 66 54
-7.573587331559929 12.53317496149835 31.711751642390006 145 146 141
-63.2968074990202 -72.80579468644108 263.29784883704554 39 35 24
-16.324225243947694 2.6479194489429236 65.18847220540356 141 137 125
-1.5983598183886711 7.19428335866781 6.617320711185017 155 148 140
2.1313253528101983 4.596811781253181 7.200285255264663 178 164 151
12.528750534033005 2.935539231556794 18.977395213732077 103 105 100
10.038701625369638 -1.7327808374654585 36.43477296152707 109 111 106
1.6146183935095366 5.822815845151715 6.418398633466674 78 69 62
-33.311750496176195 -13.473758668416687 121.5115768625287 142 133 116
-13.53011677732648 1.8144820632375374 65.76683348330734 112 111 106
0.2578550460922012 6.641488809635347 5.726179973936491 92 87 83
1.1315893984721297 5.798655274851002 5.970886800074527 192 177 172
9.135510580243109 6.639584613304495 13.850427046443823 203 205 204
-0.44798660782542443 6.711596926861861 5.72057328838223 149 145 136
-11.117525560451762 10.377219735214357 42.93716983725624 123 123 113
9.862244068026131 -12.296115167412959 47.140167422482385 70 66 54
-7.707772155759144 14.385311761781908 27.02889507518118 103 104 99
-6.802284182647475 -0.8302756768693982 62.52757609630948 130 127 118
-13.32082096020426 12.039332456090264 34.462983937721226 70 65 59
-15.773952840542677 -11.202045518682764 89.19150918268134 9 6 0
-24.45879516438208 -21.917779170107835 106.86274428309196 67 60 42
-1.480274016112717 5.294720230100704 9.669915212079388 184 175 160
16.262031020422256 -7.245047793089397 35.7283034103425 120 116 105
0.05280772791600774 3.2264365567621565 10.294249755342415 194 186 173
-8.026081942280637 14.317131279581327 27.778834359184415 118 118 110
0.44602238353087137 3.2459246660005516 10.281930988451679 211 194 176
8.96797961745023 -13.374390610912105 49.60868197692681 143 137 125
-27.6794600239386 -13.967390648322331 111.87883039282806 122 115 105
7.81182810798205 7.944381649629461 12.053615051016049 121 122 117
-32.92497945681996 -10.634356301089245 85.56845358304564 167 161 145
-0.3041189503235757 3.7265770668545555 9.94290940001626 136 121 102
19.60737340584665 -5.702312604539313 42.886371350194096 87 87 77
9.496313083808776 6.040119396871191 15.061025905345447 63 67 66
2.1086574586566975 5.429077459538582 6.951920576507775 193 189 180
13.195861948501912 -1.6097184060328 29.778851441484004 227 232 228
-6.746001952154947 13.15203850617776 28.488522586479412 34 33 29
-10.358819600511042 14.19424379632906 25.504787168895273 118 115 108
-1.4606124548710744 7.192758242215848 5.553620336349633 101 99 100
-1.7019805200205436 5.215350248257905 9.44795292660901 196 184 168
-0.7403768725805747 4.634909797080228 11.175624196436706 74 67 59
18.181148982249564 -24.14009745140938 73.89739042466032 108 96 80
-21.878254961006323 1.6930124842923417 74.2345291064718 110 102 81
-16.468095690287885 1.7556639976775268 67.54978547376358 21 9 0
18.914641519298517 -4.6745247384676585 27.408816557471393 101 93 74
-1.6947914738291672 7.158983099852395 6.648706302812686 184 179 173
16.175352444307325 -12.445242903035831 38.29458075399841 65 60 54
12.471957084681579 3.0089286026951325 19.105682424008005 198 207 206
-0.25720314146245804 3.3044560569154604 10.724292767310887 196 183 175
-0.21768910519377385 6.691831336313628 5.436164155576482 70 65 62
16.776447837865845 -23.671330486698018 72.54036899516956 197 186 164
-1.182090778424203 7.126662286076246 5.489343216097571 90 88 91
2.3390328146511026 5.3731363939085925 6.684001601556237 159 150 143
14.01234211141837 -2.935796961742784 32.76220967042524 35 32 23
1.000474079974687 5.8615827180283375 6.083168651412829 183 178 175
3.1072055729138044 4.674340764557887 6.126701303175213 207 200 174
-1.3165515068991498 4.688846483619801 12.079751437332426 171 157 146
15.296072618782553 -6.828490695219597 36.882652845512325 134 132 120
10.662033540399465 5.169707739553254 15.698445437281805 66 67 62
-1.418989767135075 4.294376693813789 12.365050421945059 157 149 138
0.6592951602268389 5.661072366191687 8.666714042778356 116 108 95
-0.5443548500851597 6.755521727107488 5.816180543851693 157 150 142
-6.802284182647475 -0.8302756768693982 62.52757609630948 130 127 118
0.050995018082138736 6.796956408107482 5.564441704119756 134 126 124
-14.469490610610748 -5.4984236540733 78.26937544044632 146 139 123
-0.18909993939373995 3.4717383412609935 10.09809849913681 86 70 54
-6.627069871900407 4.740737271256806 51.11273160415527 128 122 108
0.28510136271795583 5.906397738224477 7.15732021301742 59 50 41
-31.317564875031245 -8.592602879860411 76.8835136304922 150 147 132
-4.262677782544217 -13.44918200316666 67.26688782382935 62 56 42
15.869316889869111 -1.3074462423757627 25.228596820364565 58 55 48
-10.938922081425511 -5.737823417410063 74.13359839814098 76 70 56
0.5896496086330338 6.618927044697317 5.8395596811424335 121 121 121
1.1686968946351468 5.7504253078643055 5.960000518939679 195 182 176
-0.256629577687171 3.388525603988146 10.144487482157746 206 196 186
-10.765071185734682 14.133865929128032 26.225327044980975 74 69 63
9.003956063261578 -14.56663283633414 50.25755618106764 185 182 173
-0.2118379819938289 6.8389303006707705 5.858594618461221 162 159 154
18.64149746534292 -4.0525135825663074 26.743016580617276 248 255 255
0.2578550460922012 6.641488809635347 5.726179973936491 92 87 83
-9.08099230198698 7.156826741830059 44.62801028563482 140 133 127
16.00369613049521 -7.585900683274121 37.859802608452 75 71 60
1.0924652606188758 5.969703230946614 5.781009194271393 136 131 127
-29.992495434502636 -20.070262003826468 95.4713672217448 70 64 50
-0.5968304756968121 6.738793402807623 5.723564583680149 183 176 168
12.001890660344138 -2.6130238653578766 35.0712111924773 100 97 90
-31.01958232128516 -23.48888232457183 98.29044388956905 127 121 105
1.2762153657434523 6.0840558540139735 5.828287016876216 215 215 203
-32.44375369463909 -9.387218625292858 74.73915230026971 44 41 26
1.9903478391972445 0.6819166427866508 44.48370044382853 144 146 135
-8.799789659075197 -45.8989269541546 160.65648567002853 189 181 160
-0.5701121445116091 3.693430848636654 10.079020432075403 193 177 161
17.187664013536505 -7.165426646269814 34.34667470075857 105 101 92
-2.598411010924648 5.081492472911641 12.79063982662935 134 120 107
10.773701974841865 5.044103787033693 15.897801243852703 57 59 56
12.727283063083359 -5.924498761739083 38.71032736845625 128 126 114
-29.35748638657915 -4.403454221015515 83.42740017524838 22 13 0
8.191613681786574 -8.114723370799133 48.9379622737556 121 117 105
6.893723140969714 8.92510792989704 10.050406026764856 147 147 147
10.450745738183736 0.42144782188993524 29.60951606697821 186 191 187
10.619042532829221 0.46402491425306863 29.62976124943888 136 141 137
-8.265486237668522 13.410202830393809 30.78216108526441 106 107 102
-6.560203509540667 -11.865265849094119 73.60544269500684 170 168 156
-7.27370967481014 13.088008694674494 29.922523058081488 137 142 136
3.550028909722192 -13.758728557189247 57.59931979595805 91 84 68
5.02040351976244 -33.464051625214765 111.51844213672895 170 162 143
0.3877475961746875 -9.790997551884045 67.71962791968764 125 121 109
11.228155651988745 -13.441116126710744 47.53119916485946 90 84 70
-2.5221583732930766 5.597178766124824 8.175946066236607 138 120 96
0.7632155812880234 6.131317149626076 6.240595108725516 208 202 190
2.92883677164462 -5.247324863263493 51.06382378689225 171 168 159
-0.10480312659916267 6.3691242250521105 6.412957435710812 97 93 92
11.125114748881925 2.826206001955587 21.81436990554261 111 112 106
-7.687817993587534 14.479320512090124 26.603853482771587 42 41 36
-2.4300002935679332 4.7147505055964105 12.731601121048921 182 170 158
-16.04547144908202 1.8834967942867225 70.41750358721846 61 60 55
-1.4765330775210501 4.370083929120114 12.43961336672003 105 96 87
0.5946273120257373 -2.8131540848565444 51.227106977559316 35 31 19
-0.5585848110764787 6.78312857499688 5.915380502864969 131 124 116
9.903445614945102 -7.833079321528942 45.59306556440504 119 117 105
-6.463593936000025 7.6029376485204665 41.2939519322165 70 66 55
-1.5479963122317555 5.89335223157207 6.5071290982033885 140 135 129
-14.977715616310796 10.314289539134833 39.96436928428442 66 58 45
-14.113856545855308 4.200650203478673 62.1298118041293 52 53 48
12.35969541559153 2.67189220943207 19.966162540694828 202 208 208
11.026988337078066 -7.856413188346943 45.08648568738853 119 115 103
-7.749118901992613 13.91591887793799 28.107662930514657 33 35 30
1.0717726671314516 0.8819385920362949 45.249869118083566 96 96 86
0.5202884290003397 -9.24289851424612 63.100989172867806 102 98 87
-1.6943854743488047 5.238043492191137 9.609815735466059 185 176 159
-12.002606266802543 -20.516439694680493 83.05802930788113 164 157 149
-14.155947018876397 1.590549453970366 67.61215500279661 55 56 50
-21.811318573956505 1.2814300533715035 70.08908738769854 36 29 10
-30.60303080762434 -24.417777255827833 107.02863703985476 125 122 107
8.939122451938545 6.599034042220077 14.129190827676265 70 70 68
10.180530313666727 5.120297515950893 16.705530297907476 97 99 98
-1.5858488417101764 7.439970682762045 6.292024360932259 193 198 202
9.383534925546886 -13.523701128940646 50.15933970356728 141 135 123
5.924980709352524 -4.534755575188807 47.352870367056084 140 136 124
12.204856475701073 2.579765119485202 20.63791627052774 214 219 215
5.240392356878881 -1.7780751126704386 43.70564780862301 57 55 43
-79.68609460041586 -87.2446311706831 295.20233836991764 24 17 9
1.844285039983166 5.4846399303370985 6.426241839344816 115 107 96
2.7363383120487867 4.667406945804051 6.11024536983646 139 118 99
16.20581071511737 -7.329057527822675 36.38512262278275 108 104 95
2.761538070567046 4.012382222403196 6.367750508158115 121 106 83
-1.8477040315035311 7.105574193402849 6.554306025095737 196 193 188
9.282358500092657 6.533514666542512 13.879194802060868 167 171 172
-14.91031397892086 -17.69771787511121 77.44757655401283 82 79 74
-12.24829568360136 -21.835303124315672 88.13088874607239 144 140 129
10.619042532829221 0.46402491425306863 29.62976124943888 136 141 137
0.21330188887504983 6.668344288448856 5.7025188535597735 111 106 102
12.427838836252466 2.164738874942981 21.457175118580572 178 176 163
12.347520735305928 2.7590959458299578 19.798460004068467 209 215 213
11.419098639372546 3.3983143377816156 19.454898352212453 175 181 179
0.015887439976462546 3.110485268061235 10.881446385406969 161 148 139
7.943322956730864 7.779831552516279 12.243208453646602 52 54 51
8.939122451938545 6.599034042220077 14.129190827676265 70 70 68
-10.401148548237856 14.36236376291965 25.86817876723967 45 42 35
0.9096632332926754 6.095774651731944 6.237869975330764 61 52 47
-1.5513311863042107 5.578237040522794 9.252181228552674 40 22 0
1.3015297330492999 5.128953996218981 8.418326799573878 100 88 76
-13.764222391269353 -1.8807970439174104 74.76242319200168 27 21 7
0.5026372677795989 6.103498137405638 6.5537649424823385 195 194 192
-1.694980705247801 5.921294527532614 7.492240489672735 151 143 140
-0.20877024298295294 3.803382235728774 9.937012360106651 214 204 192
18.857860139901103 -4.79001554623909 27.196291700720234 195 191 180
-1.7493561717766688 7.277556537600672 5.6802438895028615 185 183 184
-14.724730682375375 -0.7766241688134093 75.5253976592802 107 107 99
10.041592311381478 0.5657147393256602 29.76163704396236 164 166 161
-0.1361637200553107 4.4111256520712026 9.228310369207255 213 214 209
8.645545944857645 -1.059744056718866 36.09467147005504 128 131 124
-27.92841134166844 -19.972155096137804 107.44050135618497 161 153 140
6.025048999707309 0.32831123767552445 37.92327601884333 86 87 79
2.761538070567046 4.012382222403196 6.367750508158115 121 106 83
-1.660850940217451 5.228691949560304 9.577564115933635 185 173 157
-1.7971866814753767 5.246771205587335 9.659060432794423 196 187 172
16.35613988103483 -1.8376477015019663 24.003899110343188 196 198 187
8.665319453401624 -4.9847928252919 43.6153034825289 128 124 112
-6.1519178915815305 -5.2091463255179535 64.6078183556125 134 128 112
-1.887658236941748 5.323430255323555 8.119693436933497 92 79 71
-0.521528244593364 6.947774540419134 5.303979098396034 167 161 161
-1.4938085539781112 5.194715628277679 11.721809765843235 123 110 101
9.463687825009405 6.178281950899557 14.718075907570741 72 72 70
-7.297052148099892 6.031998903737262 46.502586526127445 66 64 52
8.742955321803827 -3.1711032775525605 39.541464887358934 206 205 200
11.036505623543498 3.1655981546469567 20.770951889435686 126 127 122
-34.92721381512318 -15.585476925796694 108.55127789444062 120 114 102
-6.320870423821853 6.894386046107425 43.33703564086003 79 76 67
6.891670245868071 -15.204736395053057 53.32715631119422 165 163 151
-26.814380600182496 -5.651789223961129 101.91299004415465 133 127 111
0.251562998930653 6.660924977112891 5.6862011608394365 108 103 100
-27.205970269995074 -2.356980951897332 92.48236540938305 106 98 79
1.7931247304850029 -0.910688033117768 48.11473123593975 104 103 98
-18.910657385223686 -6.189307331050506 86.84500496267032 132 124 111
-11.160061890378737 -19.64012448530327 82.89721309149262 154 150 139
-31.72421951083073 -24.240219256884213 93.80995802066525 123 115 102
-17.935304976120122 0.7066283034110101 76.81475537800331 90 90 82
-71.5852409012207 -71.42783491747787 261.31638797321256 18 14 3
-14.72167408722419 10.469251413950982 39.09343977074598 63 57 43
-0.06607439117484339 1.7979878522930055 44.60588754941114 149 149 139
3.3703562295426903 -2.4098749131462456 49.26431565922009 100 98 86
9.04445010094264 -10.85040443525204 46.13480740936622 167 165 152
9.7549531557862 -12.384344235176837 47.55146254623633 59 55 43
-10.896640285397915 14.578603431078125 25.986934686220003 152 148 139
0.4728425476595407 3.4409909700604504 10.251391704871684 104 86 64
6.666839531470004 0.2874876335521744 36.57458092417856 103 106 99
12.24644327457331 2.394546483253276 21.24826393256271 129 135 135
2.1673692491627388 5.077784389302221 6.905922022102295 155 146 139
0.47924401168660385 5.9028763689111985 6.817977326436888 157 150 142
19.751328141706338 -21.354056153741134 66.09479153267546 89 84 65
-7.644828893198704 14.328946310675052 25.216418679055945 130 127 120
-1.7739569397901855 7.42263894974666 6.176654907236045 165 165 165
-8.698950748479048 12.254992477961606 34.70379624678605 46 45 40
-10.642038473142469 7.17623225834771 49.15552133667241 85 80 76
12.134101411686501 1.1084076274921644 25.172051391721208 182 187 183
-14.826448040642491 -11.177001032429486 87.05420864993052 106 103 88
-25.42482522787487 -4.293313046979795 76.83720797715104 21 14 0
-24.47519788321192 -58.3570698850086 213.40962938167416 91 83 60
-0.5571836476378648 5.625976188832611 6.756347792464053 136 129 119
11.622393773803124 3.7759395727688245 18.21079786754441 85 91 91
4.715081427415745 -11.424262737834002 51.87655661566633 44 42 27
2.6840053994986843 4.789170279874524 6.101464738749107 155 146 141
-8.604867733229819 13.248151810239747 31.61221160889223 114 113 109
4.796601525568642 0.1831032144488894 39.833511434923174 152 153 145
-19.764138633706768 6.095778984969913 45.078361639935444 171 163 150
2.9506627038758437 4.522410821170204 6.103287569202926 212 199 183
0.9282829556706612 5.540388179803375 8.637772468060426 176 172 161
-28.20919352717773 -5.8326578387563215 98.44460167395707 73 65 44
6.145586662531371 -2.7472310842618946 45.47258573697377 107 103 92
9.088252076055529 -13.338304736153844 52.02113838731471 76 70 56
-23.213268650347526 0.40636043881431866 70.44004167211475 35 24 6
-12.20079244753344 1.0141615110165676 66.27643420639095 103 96 86
-1.5446457929017396 7.3502606060291935 5.843372449877481 193 198 202
15.87305857680304 -1.2801795600186674 25.15459806040306 89 77 65
-19.618325365117023 7.274272942836122 43.47018661515147 119 113 99
-2.2442462292234118 5.221331868933748 8.908716817959693 206 199 183
-14.358428412584285 11.619795822297679 33.032249755513874 97 98 92
3.0119195363074076 3.661435239312082 6.471394960693667 131 119 105
18.650691292124055 -4.687148852926186 27.37480757372282 119 112 96
7.749254360405381 8.06080957194307 11.661101719246961 139 141 140
7.831848421384424 8.056990771415707 11.622094601045223 66 68 65
-1.7794391221171908 7.221063967965003 5.880827918565224 28 24 23
10.7893257802869 4.932101581309863 15.897530504920047 134 136 131
12.63391216288518 -7.482578078246871 41.37220387125576 136 132 121
-8.739242208932092 -1.7014451467433733 67.85958378178854 38 33 27
1.6428244203465898 5.816131848051054 6.428227553008352 133 125 114
-0.5121446951159287 0.9625461436457388 43.202753254090695 122 120 108
18.180368813288265 -22.63552188636065 70.08261458293761 206 199 180
-1.556394462393802 5.167645877575283 7.660355872008263 209 205 194
5.75185632814727 -10.470595496965302 48.162533887372454 66 63 48
12.591034245537436 -13.419111595179087 43.836185409891684 200 197 192
-16.142651204132687 2.7834513238028995 67.87473075487023 30 20 10
4.331955856351786 -13.771852934653175 55.03843067107687 130 127 112
11.991540296457114 -13.03092588264994 43.686823207216435 73 67 51
9.118453069059294 -2.0800975249397298 38.347759721376406 143 145 134
-15.052865968442315 6.900986777636603 54.759714878083656 100 94 80
-69.39003000979318 -76.5084829761924 270.3413964515195 22 15 9
0.15543914891797783 6.718700301706956 5.895824489523305 31 26 22
0.44057920154235564 3.153513538944621 10.274772040247107 53 36 18
13.057632998452622 -8.825370644492665 39.421608583831606 93 89 78
-1.9464598622343752 7.362050590307871 5.723609029323302 123 121 122
9.924911301252255 -2.574733449635426 38.53428915950768 25 22 13
16.84508223791797 -3.438242648832248 26.831273292682898 41 44 35
0.3608853693216447 6.000056868186514 6.948402584297864 49 42 34
-6.350486688165421 -2.036358599186926 65.50676203130243 128 125 118
-8.725379627593389 11.18548087381246 37.00180326281398 111 111 101
-24.745418094833582 -23.100541141557034 98.44134715491961 92 86 70
-7.829516348497631 14.1823559682417 28.139109609836353 41 41 39
-1.8152643365718364 5.184108418317877 9.632399067800684 167 160 144
2.0847674752573897 4.435919186445945 7.186322225511761 218 212 198
9.614732407100973 6.0748906529025275 14.61753417901692 95 100 103
-9.417639871015318 11.248997095233806 37.605218044042516 57 57 47
13.613805372109173 -4.766117057559586 35.75460908873002 104 100 89
-20.43365261648553 0.14162937767707853 77.28322880192584 151 144 128
-0.9349037214421092 5.393255570306897 7.452493594703946 122 108 95
8.576164581390962 7.123844187368127 13.362380097157383 142 143 138
-10.23239650485731 14.830344359029311 24.339017712486044 82 79 74
0.6351089685265764 6.370674325729936 6.225447504112707 189 186 181
-21.341974293248633 1.8072051376816138 72.71982655873106 29 21 0
-3.228323309216809 -5.408667481396004 62.91509717796239 143 137 121
12.448089530511115 0.6882701358781544 26.50736093986213 166 168 163
7.787866778964229 -14.960372509349783 52.55371768160938 63 57 45
7.7662997490165875 7.951944798175566 11.973226072510451 127 127 125
10.99578809366375 4.753539123903234 16.298328696045566 85 89 88
1.228130534579824 5.940330458650891 5.746675901587219 73 69 66
1.2204078952315707 5.215047702737612 7.595706767683838 35 22 5
2.8765141265284613 4.460608911704447 6.416773364990105 183 173 161
-0.49418487309963244 6.899681639823271 5.286508793712809 134 130 129
-12.029905803904189 0.39291031258760234 65.40897732941528 77 74 65
-7.846086047554004 13.115814926189701 30.8166360299757 122 123 118
1.598929839347909 5.815391109596736 6.428585381627713 185 180 174
-5.404999281106296 -5.33222845297041 65.39264767473036 128 122 108
-25.974135783155937 1.3309978945686545 72.7264768178412 168 163 144
-18.583667157213817 0.9438362778145252 74.78440982032042 151 144 126
-24.73947043656651 -2.228281866545687 85.2815464960038 7 0 0
10.787567678501933 4.76953928624075 15.743442736345584 188 190 187
-1.8474044477549159 1.5796198367650958 47.80874255038139 119 115 103
8.968099619493225 6.920359366650259 13.206134219274619 93 97 98
-0.6682793579204996 3.8792058317385516 10.251284511091056 195 186 171
-7.933327622072555 11.79705473036106 34.08477684560509 94 95 89
0.1678616165072336 3.113304650524229 10.587334494904788 61 44 26
1.0873384294675141 7.067291696499045 6.0328599418346895 146 141 138
9.759543165990982 5.635302558671267 15.850745195998154 165 165 163
-21.87451845460692 -1.5942127007447362 82.23286589818684 133 125 106
-36.83367544225376 -18.706063061049214 92.89101028783672 121 115 101
-0.157384166102104 3.5765304311656925 10.069690362572137 55 41 28
2.695100918380374 4.72933122240543 5.9051778492421585 212 204 191
9.218547068312613 6.655132546349732 13.5690898464009 195 199 202
-0.14703205703021238 6.860134519966306 5.707481000498688 88 83 80
-2.0499397460764377 5.521758560140807 8.017385863645604 83 68 49
-7.37281993485045 12.769968281704255 31.00710782788341 78 79 74
-69.39003000979318 -76.5084829761924 270.3413964515195 22 15 9
-26.119549284368894 0.07262363249552366 72.90787818333014 107 101 79
0.5273191467348775 5.902066021311694 6.684120978173741 92 85 79
-2.080603920074391 5.100010216437088 12.195264707832726 172 160 148
-0.9128066478070784 4.698358559311859 11.047362792778957 170 166 155
-2.417175322660978 5.2540751438706685 9.24745907225788 198 192 180
-1.1788329522744516 4.909771737844205 11.155965754513632 184 178 164
0.5683593498325845 6.3371344275847665 6.242556183954972 85 71 60
-10.145212926906712 8.164927353654996 45.46682004976652 150 147 142
-35.84255509091075 -16.146195337863098 106.56266832132476 93 87 73
2.750900745968874 -2.5831799101630355 51.29038324336587 23 21 9
-7.307896106487006 -9.996582614787988 75.32429648452845 167 161 149
-0.037772662009681664 6.775878940583126 5.647888970213031 153 145 143
-28.982702859736385 -4.7677600438220455 84.13501329455897 24 11 0
-7.417449772304355 12.42324009129451 32.001273843601545 56 57 51
-19.765024327680546 7.072883857586538 43.888828294319694 129 125 113
-1.3607262552914863 5.455764366876171 8.252884304694028 153 135 115
9.361407353598825 6.082774486566062 14.75962019022709 79 78 74
-6.800061870652055 7.172760905175765 44.208417637764555 64 60 51
2.339229855329568 5.681127252873751 6.511503884149412 142 134 132
15.271999578317434 -3.0133855396421065 30.81800475941032 28 24 13
17.670475833391876 -12.478751326597237 37.14717804133166 193 198 194
10.95997516944097 -2.7858970751086924 36.46275651926328 38 34 23
5.02040351976244 -33.464051625214765 111.51844213672895 170 162 143
-0.007247180511365569 3.990563847085428 10.08183639033962 32 14 0
-1.4860591171080142 5.501070849094822 7.5248304019013625 152 138 125
-27.06283645037499 -6.107223748178465 95.75699392904308 129 122 104
-9.90040917595831 7.024025585950113 48.18527086789555 174 171 164
-2.478021126961463 5.551012822447146 8.125355596572062 138 122 99
2.4922712486527003 -14.332439850837174 58.435587419477116 155 148 132
-3.0878635750524506 -2.3822500753440226 60.32589690325295 31 27 16
-9.447626083190722 7.219365486223888 46.867796666674245 179 175 166
2.6410021027283803 4.367031002804838 6.676982747504835 74 53 26
-18.488847544966006 -2.498894672917486 79.43117283131565 8 0 0
